ply
format ascii 1.0
element vertex 160
property float x
property float y
property float z
property uchar red
property uchar green
property uchar blue
end_header
0.27599848577364716 -0.5329071093733582 -0.048055029474051436 200 176 129
1.1558207420529596 -0.6646296874769155 2.1384289024725804 144 143 230
0.14055999131121233 -0.45204928792492144 -0.21858280681402306 221 235 233
-0.09536826986576728 -0.46785019657506394 -0.5167458950848278 187 155 157
-1.3990527532410817 -1.7314394878484163 2.057476750734605 214 214 244
-0.5559335098500942 -0.598690057740566 1.5368923579832408 106 113 149
-0.5559335098500942 -0.598690057740566 1.5368923579832408 157 116 111
-1.345577994409138 -1.7051005365601601 2.0585966487199534 244 149 213
-1.345577994409138 -1.7051005365601601 2.0585966487199534 183 162 112
-1.3128421508846575 -1.705381186307723 2.069373020720483 237 136 153
-1.3128421508846575 -1.705381186307723 2.069373020720483 200 215 222
-1.4431959709617739 -1.7328491813220313 2.0484452551644123 245 198 248
-1.4431959709617739 -1.7328491813220313 2.0484452551644123 208 221 248
-0.9223977523074137 -0.7146903499214213 0.4788907741282649 152 171 121
-0.9223977523074137 -0.7146903499214213 0.4788907741282649 111 213 224
-0.9223977523074137 -0.7146903499214213 0.4788907741282649 104 210 100
-0.9223977523074137 -0.7146903499214213 0.4788907741282649 225 232 214
-1.4098658874963992 -1.730432019947788 2.054387411534384 119 249 164
-1.2789547075543888 -1.7731993453397232 2.2184856844841288 169 138 197
-1.2789547075543888 -1.7731993453397232 2.2184856844841288 113 248 125
-1.3174044974771373 -1.6664440780107659 2.0466835921276307 241 120 102
-1.4211084475257945 -1.6876967814975772 2.030049154575303 121 234 194
-1.3640679448220847 -1.659273079909216 2.0283504753245785 238 132 238
-1.2694664393583959 -1.7525250627523963 2.191451507350355 147 171 150
-1.369011385550622 -1.707045184425428 2.05277063422031 150 254 184
-1.3168227919624398 -1.6599600963662118 2.0429784578699164 156 189 152
-1.3603572493342768 -1.7020944044816686 2.0526505231993664 115 131 230
-1.3603572493342768 -1.7020944044816686 2.0526505231993664 142 225 134
-1.4371692240884488 -1.7160662316490074 2.041306709396755 145 234 249
-1.4118113636822525 -1.7140419129709663 2.0456667184406387 186 100 119
-1.3567018222932967 -1.688103721682459 2.0461667976062694 165 229 150
-1.41421463063908 -1.696661427164042 2.0361931376501174 199 248 192
-1.41421463063908 -1.696661427164042 2.0361931376501174 203 219 135
-1.3771576250542776 -1.7024141057316717 2.0481280019944443 164 225 188
-1.3771576250542776 -1.7024141057316717 2.0481280019944443 239 164 215
-1.3146884839025383 -1.6831741993419616 2.0567032088996244 222 195 191
-1.42496959842336 -1.6821962948763904 2.026375156331875 254 196 234
-1.33441101335233 -1.6682268600078893 2.043736365854311 223 171 235
-1.4159543954207505 -1.6810564196722841 2.027648318451119 178 172 137
-1.3397834550220862 -1.6833930760511422 2.0489921280708225 110 241 211
-1.3785720643346668 -1.6879308419878998 2.040219703050087 204 240 100
-1.3797739312772717 -1.6796712798495872 2.0353645432565326 160 154 247
-0.9823695903465921 -0.027426227190050306 -6.8003904747791095 237 186 161
-1.4034210920521057 -1.7176585422495716 2.0494539214407106 113 146 127
-1.32534266860464 -1.683088074585474 2.054311185932567 111 139 147
-1.404482599475552 -1.7016923190667543 2.040998994035116 110 212 112
-0.9269391847461287 -0.8002098942697625 1.0400020512992394 226 182 152
-0.8975674051594424 -0.47603588440367933 0.4563864418418008 241 178 136
-0.8975674051594424 -0.47603588440367933 0.4563864418418008 193 199 171
-1.7205879367374526 -5.715988154287122 6.040412957607345 233 191 140
-0.5635789586743865 -0.5695202872896021 0.9975275472717415 159 249 246
-0.5635789586743865 -0.5695202872896021 0.9975275472717415 160 129 157
-1.5741640514495776 -5.5773911182247335 6.0971111186976055 126 123 209
-1.5741640514495776 -5.5773911182247335 6.0971111186976055 149 142 175
-1.4604211568305818 -5.539933133571915 6.145333447753737 209 106 206
-1.4604211568305818 -5.539933133571915 6.145333447753737 124 222 226
-0.402932957233255 -0.9432346439990644 1.8601557679964378 207 235 127
-1.870972269586804 -5.772736181225107 5.992543650017434 158 164 231
-1.870972269586804 -5.772736181225107 5.992543650017434 248 193 202
-1.7594193978660628 -5.726007389804017 6.027422146921163 106 203 229
-1.5893801632057203 -5.4508390972144305 6.092393711744847 254 219 129
-1.532690002253462 -5.431596583995058 6.116735936385869 187 113 137
-1.862659270643063 -5.620340184329354 5.9984109242695105 133 206 203
-1.7059545016288722 -5.468580353814967 6.049142961993558 199 233 235
-0.640574057121715 -0.5523657454559749 0.8871264326186447 189 101 222
-0.640574057121715 -0.5523657454559749 0.8871264326186447 191 239 164
-1.5172085186549793 -5.558863114661816 6.120582092276094 155 108 245
-1.6524662098916039 -5.611056740007563 6.066810232152178 252 183 133
-1.5959371005287206 -5.431970421200836 6.089802573066569 223 136 112
-1.6297509863685937 -5.586329330458135 6.075634548275854 179 147 157
-1.6297509863685937 -5.586329330458135 6.075634548275854 163 211 217
-1.8754291410001895 -5.718963288376744 5.992840081596344 138 210 146
-1.7905471699144029 -5.682413593098411 6.018796438996836 253 198 118
-1.6377282459968943 -5.542118655121338 6.0733167406004815 200 233 143
-1.8250265051654002 -5.636754694466089 6.009206818283224 100 210 251
-1.8250265051654002 -5.636754694466089 6.009206818283224 196 144 198
-1.6875762732750823 -5.607732821459685 6.054355339293183 181 162 182
-1.6875762732750823 -5.607732821459685 6.054355339293183 248 149 147
-1.498741033435407 -5.476959581212903 6.129544524388163 144 224 194
-1.5856957794888193 -5.50665496029685 6.093567280452838 153 135 249
-1.8845490452188096 -5.609900486938939 5.992335855636792 205 251 125
-1.8547962933998292 -5.595383591671886 6.000995789446743 133 189 149
-1.7140907148337359 -5.567889887326342 6.045782515006149 178 179 246
-1.7305751540747372 -5.546380965177545 6.040411346401492 103 202 173
-1.537003173102392 -5.483689715346706 6.11105526823861 244 157 249
-1.537003173102392 -5.483689715346706 6.11105526823861 251 132 216
-0.8234645460998323 -0.5193396433433903 -0.060552543123924274 216 111 234
-0.38546246388925814 -0.7510112335138546 3.1164449606535536 222 241 229
-1.177576940660456 -0.8901325338434898 2.1450910519697453 243 188 136
-1.177576940660456 -0.8901325338434898 2.1450910519697453 128 103 199
-1.177576940660456 -0.8901325338434898 2.1450910519697453 122 107 239
-1.7915298919519258 -1.049093191284073 -12.078930617433645 175 241 250
-1.7915298919519258 -1.049093191284073 -12.078930617433645 232 103 138
-1.3405917307229933 -0.9338875195301756 -1.6645902617993624 199 137 152
-1.3405917307229933 -0.9338875195301756 -1.6645902617993624 166 141 119
-1.3405917307229933 -0.9338875195301756 -1.6645902617993624 223 134 101
-1.6903203927443595 -3.0433500823603854 2.471659041366288 166 129 189
-1.6337061906387669 -2.9772008479854652 2.483093598048753 120 196 251
-1.6337061906387669 -2.9772008479854652 2.483093598048753 150 227 112
-1.5900146247553308 -2.9658011081092392 2.5079181134664017 131 204 108
-1.5900146247553308 -2.9658011081092392 2.5079181134664017 158 144 105
-1.748290362684706 -3.064840451974243 2.449355169196965 107 234 225
-1.748290362684706 -3.064840451974243 2.449355169196965 175 216 187
-1.7052593997624441 -3.046198526213866 2.46465924179448 175 238 175
-1.63922234971038 -2.9066833129335556 2.4559889974068847 215 154 180
-1.6177050331027167 -2.900213328767298 2.4676898224641386 151 221 122
-1.3597576267749096 -0.9739325885987404 -0.08430063518914344 151 114 109
-1.3597576267749096 -0.9739325885987404 -0.08430063518914344 196 173 143
-1.743316189141745 -2.9791873169488396 2.4226893956932876 147 139 208
-1.611848447353701 -2.971547741946728 2.4951927490770087 154 242 115
-1.6637307760383917 -2.989751904660095 2.4691180871884075 162 147 186
-1.6549713662920358 -2.9777793878721823 2.470319151302374 229 101 135
-1.6549713662920358 -2.9777793878721823 2.470319151302374 144 196 224
-1.7493490909570881 -3.034007792003293 2.438644776045144 182 119 178
-1.7167659817249423 -3.0193973719342133 2.4498930052592214 194 147 123
-1.6578380463898619 -2.9526722916263126 2.460158068393379 134 136 199
-1.7293583334089975 -2.991182259231888 2.4338645326657145 134 107 212
-1.7293583334089975 -2.991182259231888 2.4338645326657145 150 134 129
-1.6770876241557933 -2.9852127873005063 2.4599181134258816 219 189 107
-1.6770876241557933 -2.9852127873005063 2.4599181134258816 194 119 149
-1.4680706818615863 -1.0666324593406946 0.6168962459874023 197 157 126
-1.4680706818615863 -1.0666324593406946 0.6168962459874023 143 178 177
-1.4680706818615863 -1.0666324593406946 0.6168962459874023 248 190 122
-2.9824264444302333 -5.265159165002195 5.886492507844895 136 189 252
-2.6343555648987107 -4.283609563188944 4.830805875558645 178 136 197
-2.6343555648987107 -4.283609563188944 4.830805875558645 137 126 122
-2.5681856229760265 -4.417354326117755 5.079018873051808 183 152 174
-2.5681856229760265 -4.417354326117755 5.079018873051808 208 106 156
-3.516551849894727 -6.667366510604966 7.512585426189076 226 170 154
-3.516551849894727 -6.667366510604966 7.512585426189076 133 159 137
-3.078058685398083 -5.488229564170593 6.143305734712181 116 160 163
-2.516850857722786 -3.6412890444653496 4.106245563662797 197 128 169
-2.4994151015534483 -3.7419921117454176 4.273361633573146 159 185 108
-3.125275238819528 -5.173196528860826 5.85660703629783 248 175 223
-2.595319055394457 -4.318159931387721 4.91108723177222 202 207 212
-2.486163715046467 -3.646450884634266 4.160664641561492 250 194 235
-2.7278585634273163 -4.415943175319307 4.94646221278534 195 165 206
-2.677138495635944 -4.269098935648204 4.788666235540144 214 134 213
-2.677138495635944 -4.269098935648204 4.788666235540144 197 169 250
-2.120216214473699 -1.9655043890498056 1.8619030041048488 114 248 172
-3.4049124447198165 -6.196463548699882 7.00872847534836 243 172 180
-3.0630619398478416 -5.269508125740474 5.9167804406387745 206 167 246
-2.62749677054584 -4.004960479309953 4.488384742246084 108 215 223
-3.0533011305979794 -5.06655538392353 5.708754181915671 252 121 133
-3.0533011305979794 -5.06655538392353 5.708754181915671 209 192 100
-2.7581320640077402 -4.411740667509777 4.936346080332217 182 252 228
-2.7581320640077402 -4.411740667509777 4.936346080332217 171 135 126
-2.5313334797639513 -4.0408258462013995 4.636025278539872 217 225 100
-2.5671132048946674 -3.9024994569217686 4.400742653320097 163 236 100
-3.174347628429594 -5.255943071935201 5.970638966502627 176 165 196
-3.04348729910494 -4.893314502927642 5.53148867960918 252 169 148
-2.7258142863540122 -4.166890634040824 4.656352515614911 209 109 223
-2.709760884795613 -4.038326019967465 4.5078597343389575 231 184 253
-2.539333648294297 -3.9377132433614417 4.4800992267066935 133 228 110
-2.9883909153993513 -5.119828353368618 5.736218822912177 108 168 106
-1.6492942896273661 0.567430049566588 -1.880210191004664 195 254 120
-1.6492942896273661 0.567430049566588 -1.880210191004664 217 196 166
3.7099813099628065 -4.264568740016025 16.24671058982445 122 152 248
3.7099813099628065 -4.264568740016025 16.24671058982445 183 176 119
-2.960584872059838 -4.877130613759437 5.474570324765986 208 114 194
